# .PCD v0.7 - Point Cloud Data file format
VERSION 0.7
FIELDS x y z
SIZE 4 4 4
TYPE F F F
COUNT 1 1 1
WIDTH 816
HEIGHT 1
VIEWPOINT 0 0 0 1 0 0 0
POINTS 816
DATA ascii
0.52873468 0.016946938 0.80942249
0.53283864 0.017752258 0.8090995
0.53700042 0.018150885 0.80798757
0.54367286 0.019377725 0.80689102
0.50355005 0.091067165 0.80877143
0.5016197 0.097528078 0.80851805
0.49934351 0.10447605 0.80885398
0.50058025 0.10168628 0.80793977
0.49846292 0.10866031 0.80801767
0.49759826 0.11244315 0.80761635
0.49714696 0.11748578 0.8079142
0.49765024 0.12269139 0.80752861
0.49790147 0.12680659 0.80796611
0.51260632 0.013385157 0.81000042
0.51753283 0.014571602 0.81118792
0.50553465 0.01702779 0.81463414
0.51941609 0.015789529 0.81494272
0.52394879 0.015747981 0.81011009
0.53857899 0.01938276 0.81005317
0.54008222 0.019381929 0.81001836
0.54646593 0.021231256 0.81267536
0.55415434 0.023101183 0.81353468
0.50720614 0.071782783 0.81418216
0.50612718 0.075929508 0.81367135
0.5041216 0.083195791 0.81316161
0.50502276 0.080070496 0.81320369
0.5029918 0.087586693 0.81289101
0.50164121 0.092353471 0.81306386
0.49982834 0.099271759 0.81378055
0.50047714 0.097051404 0.81270605
0.49909678 0.1028739 0.81271011
0.49807024 0.1073539 0.81251079
0.4970431 0.11231489 0.81290603
0.49680454 0.11758376 0.8126803
0.49739838 0.1224113 0.81231236
0.49835089 0.12765415 0.81280655
0.49944875 0.13065754 0.81326771
0.50419271 0.01350705 0.81906068
0.50806135 0.013452286 0.81505489
0.51312256 0.014623841 0.81593078
0.50521505 0.018217457 0.81515378
0.51499546 0.015829988 0.8196435
0.52127695 0.01700058 0.81869376
0.50320244 0.022955423 0.81617427
0.54165483 0.021219084 0.81753278
0.54923809 0.023070348 0.81841338
0.55126417 0.024299877 0.81980485
0.55595982 0.02432948 0.81742823
0.50137752 0.027078431 0.81690121
0.55894887 0.025567029 0.81963128
0.49947786 0.031766746 0.81776255
0.50061244 0.030596498 0.81815505
0.51103401 0.043147504 0.81924558
0.51241559 0.046741392 0.81927717
0.51147735 0.052090902 0.81854212
0.5097245 0.058596876 0.8179884
0.51042402 0.056242254 0.81798989
0.50853813 0.062831089 0.81787598
0.50709599 0.067777686 0.81810433
0.50581712 0.072825775 0.8180331
0.50454217 0.078205004 0.81753224
0.50524175 0.075041495 0.81736273
0.50352716 0.08255177 0.81764537
0.50246078 0.087498687 0.81783265
0.50140172 0.092623785 0.81768036
0.49982476 0.099638529 0.81605935
0.50060391 0.097150534 0.81796187
0.49948779 0.10267184 0.81729281
0.50010061 0.10113362 0.81899416
0.49888548 0.10749485 0.81780541
0.49799797 0.112808 0.8174566
0.49801099 0.11753836 0.81761765
0.49885195 0.12224687 0.81717724
0.50061452 0.12348762 0.81927681
0.49955702 0.12693855 0.81612378
0.50197113 0.12777102 0.81846565
0.51337028 0.12994078 0.8199867
0.51912248 0.1257495 0.81982589
0.50284421 0.13133013 0.81732327
0.50711739 0.13194725 0.81906754
0.51194143 0.1321729 0.81876189
0.5154599 0.13238657 0.81669313
0.50389874 0.014699042 0.82065356
0.50877738 0.014675371 0.82061338
0.50257874 0.017998893 0.82122821
0.51291102 0.016451545 0.82401192
0.51686954 0.017029164 0.82331675
0.52316618 0.018204447 0.8223635
0.52953696 0.019395886 0.82141584
0.50139165 0.022341235 0.82248396
0.53245407 0.020600379 0.82246685
0.53654343 0.021508288 0.82287741
0.54586661 0.023051558 0.82111233
0.55227846 0.024300117 0.82049912
0.49927881 0.028030068 0.82341379
0.5005973 0.025652634 0.82340258
0.55351174 0.025511939 0.82406402
0.49807778 0.032242592 0.82416749
0.51105434 0.039507486 0.82252896
0.50958884 0.04357899 0.82374561
0.51066202 0.041285567 0.82204914
0.51128185 0.048079681 0.82272261
0.50974607 0.05443427 0.82276124
0.51046044 0.051504746 0.82273275
0.50896543 0.05781813 0.82277107
0.5079034 0.062628515 0.82274127
0.5069989 0.067143954 0.82304358
0.50593859 0.072367437 0.82258648
0.50468189 0.077930711 0.82145852
0.50525057 0.077203654 0.82358754
0.50419545 0.082584374 0.82265443
0.50501502 0.080419444 0.82440728
0.50348836 0.087360665 0.82270521
0.502707 0.092595607 0.82238048
0.5023675 0.09750323 0.82279891
0.52786875 0.099683911 0.82392162
0.50203365 0.10244316 0.82284433
0.49946588 0.10978523 0.82003438
0.50170094 0.10763559 0.82279038
0.52433002 0.10649334 0.82493526
0.49936956 0.11269303 0.82019228
0.50175899 0.1125712 0.82300055
0.5227645 0.11286751 0.82370108
0.49930486 0.11678161 0.82029837
0.50211263 0.11739243 0.82303506
0.51903772 0.11862549 0.82433295
0.52100497 0.11711522 0.82349038
0.50271678 0.1220386 0.82194614
0.50694871 0.12261314 0.8240394
0.5125249 0.12372664 0.824148
0.51734376 0.12211645 0.82367837
0.52094114 0.12213358 0.8214063
0.50365251 0.12614347 0.82068092
0.50742626 0.12712137 0.82180047
0.51230466 0.12767085 0.82166708
0.51638716 0.12651281 0.82114309
0.5083915 0.13061535 0.82011974
0.50327599 0.014737664 0.82609153
0.50162452 0.017666925 0.8276388
0.50639015 0.015908781 0.82880163
0.51783144 0.018221345 0.82618707
0.52539325 0.019401075 0.82548791
0.49967635 0.022319978 0.82857656
0.50130868 0.022321595 0.829243
0.53907681 0.023017189 0.82559359
0.54040307 0.023614759 0.82791823
0.498528 0.027367542 0.829175
0.50029969 0.025219696 0.82976675
0.55461931 0.026705775 0.82881486
0.55957282 0.026764549 0.82509756
0.49840719 0.033148419 0.82621801
0.51034927 0.039389353 0.82692999
0.50968051 0.043025106 0.82770348
0.5101217 0.040830255 0.82782745
0.50926137 0.045187246 0.82863617
0.51082528 0.048139539 0.82756847
0.50971955 0.054110825 0.82573426
0.51045144 0.052634776 0.8278572
0.50936264 0.057763107 0.82702327
0.51011652 0.057479091 0.82946926
0.50896001 0.062090263 0.82779992
0.50809312 0.067655534 0.82756567
0.50756884 0.072802901 0.82770717
0.50713325 0.077367194 0.82762414
0.50697017 0.08260639 0.82788301
0.50455225 0.087954111 0.82514769
0.50689393 0.087857738 0.82800436
0.52772695 0.087828405 0.82949746
0.53009367 0.087577701 0.8270483
0.50437808 0.092604183 0.82542622
0.50705034 0.092625819 0.82806987
0.52388501 0.094081029 0.82990462
0.52655303 0.092594221 0.82858002
0.50430155 0.097271502 0.82554871
0.50725752 0.097134851 0.82802677
0.51045555 0.098675467 0.82966304
0.51965797 0.099707425 0.82986718
0.52295411 0.097640976 0.82916832
0.52575201 0.098034725 0.82710069
0.50430155 0.10254016 0.82554877
0.50716072 0.10254616 0.82758498
0.51204938 0.10224836 0.82949334
0.51746345 0.10269361 0.82950461
0.52216053 0.10244676 0.82795364
0.52539349 0.10293701 0.82548797
0.50434422 0.10781982 0.82548046
0.50741875 0.10788022 0.82717782
0.51243824 0.1071863 0.82865995
0.51753289 0.10738766 0.8282721
0.52189219 0.10732992 0.82647371
0.50449812 0.11254492 0.82523441
0.50730312 0.11252179 0.82658851
0.51233017 0.11286862 0.82751197
0.51732367 0.11224283 0.82697195
0.52105343 0.11152059 0.82558727
0.50461704 0.11609232 0.82504416
0.50750726 0.11741153 0.82594299
0.51241839 0.11760994 0.82650006
0.51668221 0.1173529 0.82578844
0.50881171 0.12100051 0.82541448
0.51238853 0.1213186 0.82548559
0.50189984 0.017819267 0.83424211
0.50681233 0.017093271 0.8335579
0.51736003 0.019410338 0.83229017
0.5205847 0.01940738 0.83060378
0.4998574 0.021726716 0.83482641
0.50058502 0.020574588 0.83474946
0.52239978 0.020586478 0.83425707
0.54129004 0.024206396 0.83085799
0.49929315 0.028916011 0.83050996
0.50096792 0.027343845 0.83051747
0.55440861 0.027872171 0.8342883
0.55644971 0.027893309 0.83354729
0.4982194 0.032873217 0.83112544
0.50045681 0.032732621 0.83169895
0.49828804 0.035881348 0.83190948
0.50010192 0.03561138 0.83226657
0.51075244 0.042756695 0.8327949
0.50978184 0.045706622 0.83107257
0.51164699 0.047681484 0.83284289
0.51238281 0.052824505 0.83264619
0.51214701 0.057393949 0.83278495
0.50973833 0.06387417 0.83005995
0.51210046 0.062540248 0.83303642
0.5345192 0.063497111 0.83326745
0.5095582 0.067359552 0.83034146
0.51207447 0.067842871 0.83299631
0.53169799 0.06749168 0.83422375
0.50944513 0.072605327 0.83051807
0.51234895 0.072471783 0.8330608
0.51507258 0.073769353 0.83471107
0.52783078 0.073215269 0.83463913
0.53091747 0.072487034 0.83291084
0.50943494 0.07727991 0.83053404
0.51220596 0.077270351 0.83269721
0.51667482 0.077662647 0.83457899
0.52248514 0.078417078 0.83473724
0.52721775 0.077645451 0.83343726
0.53135645 0.077231385 0.83050656
0.5094347 0.082540527 0.83053446
0.51243609 0.082571059 0.83234268
0.51766908 0.082157254 0.83395737
0.52261221 0.082291596 0.83374959
0.5271098 0.082772456 0.83178294
0.50957698 0.0878288 0.83031225
0.51233876 0.087776043 0.83173436
0.51709652 0.08755853 0.8328833
0.52214015 0.087239087 0.83252817
0.52590865 0.086990319 0.83113986
0.50973088 0.091953553 0.83007175
0.51251757 0.092626311 0.83114189
0.51749778 0.092536345 0.83187097
0.52202517 0.09218353 0.83120996
0.51290917 0.097146399 0.83053625
0.51732677 0.097688593 0.83073854
0.52120757 0.096223146 0.83037585
0.51385593 0.10043676 0.83014965
0.51593632 0.10058559 0.83017957
0.50378501 0.019419653 0.83507776
0.49959701 0.023452781 0.83524132
0.50224113 0.022462588 0.83555752
0.51825947 0.020582074 0.83729911
0.52422512 0.021758933 0.83785892
0.49918905 0.0278538 0.83625084
0.50161338 0.027320562 0.8365075
0.53865671 0.025337644 0.83980447
0.54328775 0.025389219 0.83531892
0.5450964 0.02656872 0.83896577
0.55822265 0.029081414 0.83728075
0.49897838 0.032625563 0.83730435
0.50155127 0.032652184 0.83752519
0.49864474 0.036393784 0.83804971
0.50159299 0.036807973 0.83826339
0.51334137 0.043507393 0.83750069
0.51338732 0.047273882 0.83728033
0.51584315 0.049673721 0.83883488
0.51455188 0.052680351 0.83550513
0.51713544 0.052759718 0.8377167
0.52141422 0.053635221 0.83963448
0.52783966 0.054662041 0.83985174
0.53254682 0.054456223 0.83890533
0.53861058 0.052116159 0.83780694
0.5145281 0.057346776 0.83554155
0.51745045 0.057357043 0.83746451
0.52262312 0.05745342 0.83918655
0.52767259 0.057631969 0.83905774
0.53236133 0.057620384 0.83729225
0.53539062 0.055056646 0.83618909
0.51461989 0.062610313 0.83540165
0.51735121 0.062358029 0.83691055
0.52215427 0.062334232 0.83823681
0.52698708 0.062366541 0.83797687
0.53152257 0.062237132 0.83622473
0.51480466 0.067304544 0.83511966
0.51761866 0.067766786 0.83634138
0.52241564 0.067385346 0.83723372
0.52766651 0.066948995 0.83656085
0.5179286 0.072673738 0.83568704
0.52261525 0.072875001 0.83604956
0.52649534 0.071312942 0.83570701
0.51859474 0.076545872 0.83520943
0.52169269 0.076403469 0.83531719
0.50289106 0.018850571 0.84075689
0.50641304 0.019039365 0.84163505
0.50249785 0.022289017 0.841371
0.50564474 0.02267885 0.84141761
0.51983863 0.021742305 0.84227037
0.52604234 0.022924848 0.84143764
0.50264204 0.027438175 0.84220707
0.50605112 0.027462181 0.84219706
0.53410405 0.025286917 0.84421819
0.53825772 0.02648467 0.84446079
0.54052418 0.026507113 0.84331542
0.54687941 0.02774127 0.84261334
0.55338484 0.02899329 0.84181237
0.5021075 0.032570433 0.84303993
0.50575304 0.032619499 0.84265733
0.55575907 0.030179087 0.84464902
0.50211787 0.037389483 0.84393775
0.50587749 0.037192516 0.84351742
0.50573087 0.040050063 0.84374356
0.51714641 0.044641938 0.84122151
0.52055383 0.044987146 0.84328759
0.51777345 0.047796298 0.84139854
0.52245414 0.048054978 0.84338683
0.52747619 0.048516206 0.84389591
0.53178281 0.049245991 0.84303015
0.53633654 0.048966002 0.84104222
0.51893926 0.050861359 0.84048092
0.52275586 0.051877283 0.8417356
0.52713639 0.052495811 0.84208459
0.53247064 0.051932555 0.84168279
0.536156 0.051354572 0.84027112
0.50403839 0.019427724 0.84635061
0.50394392 0.021896407 0.84684426
0.50779694 0.0222845 0.84685498
0.51553887 0.02172601 0.84659231
0.52254844 0.023471545 0.84756482
0.52783763 0.024084147 0.84501344
0.50425535 0.027823379 0.84784335
0.50784791 0.027224962 0.84732771
0.52978849 0.025252622 0.84629726
0.5312832 0.025260432 0.84619802
0.5360924 0.026463848 0.84547758
0.54323059 0.028067922 0.84697437
0.54866195 0.028907362 0.84622699
0.50418609 0.032512717 0.84820926
0.5078854 0.032601412 0.84807742
0.51014447 0.034293421 0.84847885
0.55044621 0.030067191 0.8498044
0.55540693 0.034289315 0.84911203
0.50435889 0.037617337 0.84898424
0.50721914 0.03750873 0.84862435
0.51016259 0.037153449 0.84845167
0.50431228 0.041024856 0.84905553
0.50764787 0.040815793 0.84864002
0.51019496 0.041158374 0.8484028
0.55139661 0.044342026 0.84852242
0.55205739 0.046167694 0.84763116
0.55247688 0.050437547 0.84506094
0.50828344 0.022837875 0.85231185
0.51228738 0.02313634 0.85169339
0.51788896 0.023625024 0.85267431
0.50806642 0.027377713 0.85263777
0.51228023 0.027601235 0.85213065
0.51764673 0.027679356 0.85460734
0.53944135 0.028739408 0.85486352
0.54620606 0.029982433 0.85355169
0.5089038 0.032266285 0.85281259
0.51324552 0.032557178 0.85205787
0.51874113 0.032925136 0.85453862
0.54965103 0.032350793 0.85482812
0.55156016 0.033183515 0.85293359
0.50903475 0.037599459 0.85323012
0.51330024 0.037610762 0.85261554
0.51923609 0.036925931 0.85428041
0.52000523 0.038901031 0.85431683
0.54974896 0.035922997 0.8527258
0.55090213 0.037724257 0.8521657
0.50950807 0.041937567 0.85272419
0.51339442 0.041779947 0.85235053
0.51689112 0.042304128 0.85319597
0.52050287 0.042844083 0.85417181
0.52666259 0.044190563 0.85480517
0.54463464 0.041107945 0.85370541
0.54605997 0.042602621 0.85374969
0.55147421 0.041325592 0.8504073
0.52099651 0.045812696 0.85388935
0.52699518 0.046518628 0.85433191
0.53376448 0.048408687 0.85478246
0.53961515 0.045651965 0.85462475
0.54100603 0.048788514 0.8541317
0.54683971 0.04709436 0.85170257
0.54717433 0.050100707 0.85025358
0.51304787 0.023970967 0.85641259
0.51323164 0.02709139 0.85664552
0.51812196 0.027396262 0.85804749
0.52304548 0.02778603 0.85765636
0.52876562 0.02747212 0.85781085
0.53114933 0.029021993 0.85777378
0.53596485 0.029248081 0.85865939
0.54200423 0.029898249 0.85728049
0.51352185 0.032485958 0.85672265
0.51823199 0.032415297 0.85742158
0.52376872 0.032297738 0.85809463
0.5251317 0.034320034 0.85797775
0.53071767 0.032852739 0.85837483
0.53714222 0.032976456 0.85886705
0.5438894 0.032627687 0.85799617
0.54658985 0.032858659 0.85746336
0.55088139 0.032359656 0.85514814
0.5140515 0.037123423 0.85637623
0.51763648 0.03702103 0.85757506
0.52178782 0.037896216 0.8577714
0.5257681 0.03735337 0.85788745
0.5317418 0.037425235 0.85790789
0.53846985 0.03739439 0.85816956
0.54258168 0.037031356 0.85772812
0.54545748 0.038429882 0.85604233
0.51476532 0.042184502 0.85590577
0.51609278 0.04319153 0.856484
0.52143192 0.042343203 0.85765278
0.52716118 0.042566929 0.85787511
0.53328896 0.042211156 0.85784382
0.53850567 0.042331442 0.85687047
0.54044163 0.042674288 0.8574422
0.54626977 0.040507641 0.85543829
0.51615453 0.045598138 0.85689646
0.52198303 0.046162389 0.85788614
0.52831745 0.046907973 0.85771853
0.53416246 0.04705717 0.85646206
0.53582478 0.048135925 0.85747308
0.54119176 0.046430971 0.85576159
0.51870906 0.02738004 0.86019653
0.52424794 0.028549073 0.86121291
0.52712154 0.028949326 0.86144382
0.53103679 0.029280752 0.86213112
0.53710735 0.029807711 0.86101449
0.52250594 0.031956419 0.86072427
0.52581227 0.03293705 0.8613078
0.53192228 0.032469049 0.86147457
0.53852636 0.032522932 0.86070758
0.52642238 0.03680294 0.86071205
0.53318053 0.037008412 0.86067683
0.52755171 0.040801693 0.86017752
0.6108796 -0.043392967 0.809982
0.61099172 -0.033073973 0.80773842
0.61673164 -0.032055788 0.80685759
0.60882509 0.027853984 0.80731177
0.60650301 0.031728156 0.80920708
0.60460061 0.038211092 0.80952215
0.60595024 0.03675859 0.80709475
0.60409075 0.042542156 0.80763829
0.60291994 0.046940878 0.80786973
0.6029337 0.052928835 0.80785209
0.60335606 0.057755142 0.80794424
0.6039235 0.062094904 0.80742872
0.61075723 -0.051535144 0.81430954
0.60828042 -0.03731472 0.81115806
0.6063 -0.033945676 0.81156522
0.61278081 0.003705088 0.81386739
0.61234611 0.0071747205 0.81302065
0.61049044 0.012404309 0.81325573
0.60906678 0.017397996 0.8133021
0.61033416 0.016733821 0.81066763
0.60775375 0.022873566 0.81301469
0.60656172 0.028068166 0.81242901
0.60481918 0.034895994 0.81344008
0.60540432 0.032692928 0.81269687
0.60429603 0.03748649 0.81305689
0.60344088 0.041755985 0.81267703
0.60240287 0.047354162 0.81251293
0.60248685 0.052184716 0.81240582
0.6034103 0.057721972 0.81294477
0.60409755 0.062133245 0.8122617
0.60533524 0.064395241 0.81330663
0.60727304 0.066025868 0.8145144
0.60877967 -0.046793375 0.81539577
0.61012232 -0.049486067 0.8151015
0.60684937 -0.041652624 0.81642979
0.60469377 -0.03607884 0.81775498
0.60569417 -0.038075246 0.81753314
0.60394317 -0.033718836 0.81787074
0.61020434 -0.031193752 0.81706911
0.61668354 -0.03026507 0.81525797
0.61694181 -0.027462225 0.81905568
0.61727047 -0.022343127 0.81762642
0.61688423 -0.017706014 0.81912601
0.61634129 -0.013194521 0.81773823
0.61409396 -0.0063047591 0.81792545
0.61530948 -0.0092884935 0.81694692
0.61300504 -0.0020684034 0.81772333
0.61171621 0.0025030191 0.81828594
0.61062199 0.007319794 0.81772852
0.60953933 0.012159418 0.81766421
0.60835725 0.017669771 0.81771392
0.60742122 0.022365723 0.81778133
0.60644346 0.027743667 0.81762618
0.60478371 0.034859914 0.81556857
0.60562491 0.032720562 0.81790012
0.604545 0.038059488 0.81690633
0.60521948 0.038023815 0.81916082
0.60416442 0.042666461 0.81766582
0.60375512 0.047043029 0.81789905
0.60378712 0.05207672 0.81765181
0.60509896 0.054110199 0.81931186
0.60433823 0.056782093 0.81642622
0.60614806 0.058035601 0.81861705
0.60490251 0.060718551 0.81541878
0.60733712 0.062570304 0.81754303
0.61182404 0.06421385 0.81952673
0.61819333 0.064441964 0.81958014
0.62243271 0.061768912 0.81955457
0.60865992 0.06595365 0.816926
0.61256027 0.06668029 0.81827515
0.61732548 0.066737443 0.81818044
0.62237436 0.065181799 0.81655383
0.60789073 -0.050833661 0.8209703
0.60691059 -0.047316335 0.82174748
0.60430336 -0.042179633 0.82235962
0.60571378 -0.043515768 0.82264942
0.60368818 -0.037355237 0.82380801
0.60201514 -0.033261247 0.82398969
0.61455488 -0.027864544 0.8219648
0.61579782 -0.027270338 0.82181001
0.61431146 -0.022993332 0.82348359
0.61526358 -0.022707904 0.8221209
0.61571497 -0.017602533 0.82287884
0.61442226 -0.011817746 0.82289064
0.61509722 -0.014320672 0.82130623
0.61341786 -0.007130038 0.82233667
0.61241937 -0.0021536578 0.82253844
0.61167562 0.0018859017 0.82322413
0.61071658 0.0071118493 0.8225897
0.60960174 0.012911477 0.82192224
0.61040562 0.011382056 0.82419431
0.60910159 0.017423276 0.82253891
0.60844702 0.022698255 0.82252973
0.60804504 0.02770897 0.82282269
0.60761052 0.0329891 0.82279265
0.60729969 0.037982423 0.82272375
0.60722202 0.042474873 0.82282066
0.60721993 0.046970271 0.82282382
0.62728167 0.047157336 0.82423925
0.60744774 0.052124798 0.82254219
0.61100912 0.053102482 0.82477599
0.62366349 0.053133797 0.82450199
0.62657255 0.052626044 0.82272506
0.60817122 0.056814443 0.82127494
0.6122027 0.057380021 0.82331628
0.61728549 0.058165774 0.82373297
0.62205231 0.057416108 0.82305962
0.60930264 0.06064475 0.82024634
0.61272007 0.061752688 0.82115412
0.61745328 0.061979827 0.82135308
0.60671836 -0.050879795 0.82750636
0.60471892 -0.046903595 0.82794696
0.60651416 -0.047817755 0.82842988
0.60373765 -0.042023961 0.8286525
0.60594308 -0.043672081 0.82946658
0.60244739 -0.037540659 0.82913744
0.60309011 -0.032490175 0.82624739
0.61471754 -0.0262665 0.8278392
0.61509281 -0.028288627 0.82638085
0.61417335 -0.022408437 0.82749254
0.61541307 -0.017052609 0.82740337
0.65638661 -0.019153148 0.82946157
0.61463296 -0.011670531 0.82718813
0.61519015 -0.013072474 0.82877797
0.61408031 -0.0069831996 0.82760304
0.61349928 -0.0026010522 0.82770336
0.61285537 0.0022103358 0.82750565
0.61242092 0.007167127 0.82760102
0.61210459 0.012415385 0.82768881
0.61172426 0.017432323 0.8274399
0.6332494 0.019346414 0.82991755
0.60993624 0.023205591 0.82558185
0.61211461 0.022561572 0.82797402
0.63243246 0.023905694 0.82887799
0.60982943 0.027695328 0.8257128
0.61269575 0.027691424 0.82827616
0.62842798 0.029726358 0.82956123
0.63108093 0.027808094 0.82845843
0.609842 0.032827739 0.8256973
0.61248237 0.032711804 0.82782495
0.61617357 0.033665299 0.82953012
0.62393367 0.034208618 0.82985926
0.62725222 0.033354085 0.82894784
0.63025033 0.032368638 0.82743311
0.60988039 0.037961379 0.82565039
0.61258185 0.037966061 0.82740861
0.61727309 0.037853327 0.82909322
0.6219545 0.037853688 0.82920808
0.62684232 0.037194327 0.82793242
0.63029647 0.037618659 0.82537836
0.6099515 0.041172534 0.82556331
0.61247629 0.042562824 0.82681739
0.61770219 0.042531706 0.82827115
0.62243712 0.041976705 0.82813561
0.62664098 0.041963674 0.82646894
0.61200684 0.046977777 0.82608998
0.61705726 0.046903707 0.8273465
0.62206864 0.047107272 0.82684845
0.62516797 0.047942858 0.82539833
0.61300188 0.05183563 0.82572174
0.61752754 0.052080821 0.8262884
0.62154722 0.05199622 0.82568187
0.61686176 0.055503964 0.82525682
0.60501444 -0.050285947 0.83360797
0.60444307 -0.047034707 0.83430517
0.60719359 -0.048158225 0.83465773
0.60430998 -0.042093348 0.83246517
0.6061548 -0.041084006 0.83021224
0.60349476 -0.036841664 0.83060777
0.60551482 -0.037184969 0.83099598
0.60308748 -0.0321116 0.83150673
0.60150564 -0.029974002 0.83191109
0.60574865 -0.02883802 0.83271229
0.61546594 -0.025920991 0.83254004
0.61455274 -0.022251697 0.83104467
0.61550653 -0.022148617 0.83388239
0.61662287 -0.017010145 0.83235186
0.61675256 -0.012018685 0.83239645
0.61703241 -0.0075220745 0.83305639
0.61452121 -0.0017902898 0.83008409
0.61698365 -0.0030396525 0.83311492
0.63771105 -0.0027468875 0.83465898
0.61434072 0.0020615985 0.83030117
0.61703968 0.002077607 0.83304912
0.63688684 0.0017942069 0.83363569
0.6142776 0.00718801 0.8303771
0.61717618 0.007193815 0.83288735
0.62055075 0.007826806 0.83483237
0.63289654 0.0074338503 0.83427107
0.6361931 0.0063341791 0.8324616
0.61430442 0.012311341 0.83034492
0.61739177 0.012311773 0.83263171
0.62236226 0.012471807 0.83449954
0.62751269 0.01247861 0.83458394
0.63224149 0.012220189 0.8330574
0.61433899 0.017435253 0.83030337
0.61709934 0.017434472 0.83198619
0.62229723 0.017299594 0.83357179
0.62749112 0.017631689 0.83329535
0.63211596 0.016427631 0.83172292
0.61450928 0.021919906 0.83009863
0.61748427 0.022563132 0.83152801
0.62247378 0.022571074 0.83257198
0.62710774 0.02258293 0.83209473
0.63038003 0.021294598 0.83125746
0.61748099 0.027551603 0.83084226
0.62212318 0.027723512 0.83149773
0.62687546 0.02748186 0.83080965
0.61834204 0.032370649 0.83025658
0.62218744 0.032388207 0.83048248
0.62629282 0.030997928 0.83007079
0.60731137 -0.04573432 0.8351959
0.60425603 -0.041878104 0.83552802
0.6069656 -0.042205706 0.83587825
0.60367483 -0.038014453 0.83623576
0.60648662 -0.037483353 0.83678746
0.60330456 -0.032637399 0.83728123
0.60684395 -0.033271793 0.83773935
0.60326189 -0.029187534 0.83812439
0.60695171 -0.028820932 0.8383981
0.61679441 -0.025213966 0.83728677
0.6180408 -0.022050094 0.83778304
0.61865002 -0.017450297 0.83720666
0.62160009 -0.015542311 0.83851296
0.64190423 -0.015665874 0.83966738
0.64908898 -0.018495265 0.83943719
0.65594602 -0.017469473 0.83773041
0.61917353 -0.011971173 0.83546782
0.62238103 -0.01208103 0.83789158
0.62715214 -0.011139443 0.83949983
0.63253939 -0.010891041 0.83955801
0.63766497 -0.011702806 0.83861017
0.61966866 -0.0074942424 0.83586997
0.62249857 -0.0075090001 0.8374669
0.62725681 -0.0069346973 0.83879429
0.63210475 -0.0073040887 0.8386938
0.6368804 -0.0070831077 0.83677369
0.61989468 -0.0030300035 0.83560407
0.62270898 -0.0031747492 0.837026
0.62769204 -0.0023487944 0.83790398
0.63277286 -0.0022202774 0.83720773
0.63589841 -0.0020380486 0.83573961
0.62203854 0.0020643733 0.83604246
0.6271255 0.002008226 0.83699352
0.63191903 0.0021988209 0.83623093
0.62302959 0.0070230416 0.83556455
0.62772018 0.006868274 0.83591425
0.63110763 0.006434483 0.83534241
0.62364697 0.010367523 0.83514452
0.62610757 0.010348785 0.83522987
0.60699236 -0.046944588 0.84082073
0.61055988 -0.046881616 0.84075546
0.60690653 -0.042701919 0.84150499
0.61044014 -0.042896979 0.84167892
0.60485649 -0.037078369 0.84170437
0.60729825 -0.03792458 0.84239036
0.61052358 -0.037913285 0.84275043
0.60677683 -0.032675888 0.84331244
0.61040139 -0.032462262 0.84328401
0.60492206 -0.028195009 0.84357929
0.60732526 -0.027908191 0.84404916
0.61048561 -0.027796827 0.84352368
0.6221543 -0.021573247 0.84154165
0.62710983 -0.020804279 0.84380692
0.63251191 -0.020320289 0.84441441
0.62278259 -0.017478867 0.8413623
0.62731814 -0.01701555 0.8430869
0.63254714 -0.01721094 0.84367603
0.63718492 -0.017243911 0.84273559
0.64115882 -0.018173167 0.84114122
0.65671122 -0.015903711 0.84456187
0.62813842 -0.013513247 0.84069771
0.63245267 -0.013385148 0.84159142
0.63727427 -0.013542271 0.84098381
0.60804242 -0.046100382 0.84633511
0.61159235 -0.045881581 0.84633785
0.60853511 -0.042530674 0.84704059
0.61230719 -0.042996176 0.84684956
0.60858166 -0.037470032 0.84794998
0.61284482 -0.037691113 0.84775996
0.60859334 -0.032733023 0.84807295
0.61260933 -0.032647762 0.84803677
0.60913408 -0.027427521 0.84922284
0.61334872 -0.027571298 0.84845281
0.61510575 -0.025801122 0.84896588
0.61199075 -0.024439221 0.84875947
0.61582482 -0.02398742 0.84813213
0.62279898 -0.022463456 0.84584969
0.65653688 -0.022237323 0.84853023
0.64204443 -0.017860059 0.84907007
0.64874613 -0.016847435 0.84745121
0.61260098 -0.042395268 0.85186976
0.61710411 -0.041833393 0.8521409
0.62174952 -0.041426413 0.85465491
0.61258316 -0.037338246 0.85284156
0.61719376 -0.037601907 0.85227704
0.62235731 -0.037281133 0.8545962
0.65977383 -0.035242576 0.85073686
0.61342961 -0.032232117 0.85263973
0.61807066 -0.032635495 0.85222226
0.62319034 -0.03309951 0.85453546
0.65445733 -0.033481002 0.85447615
0.65538836 -0.031000219 0.85349298
0.61373889 -0.027663887 0.85283363
0.61866641 -0.027632445 0.85248786
0.62406582 -0.027624767 0.85430241
0.62508082 -0.025885992 0.85466743
0.64960027 -0.025588326 0.85404766
0.65058571 -0.025583606 0.85486001
0.65568775 -0.027253831 0.85130906
0.61411303 -0.023677651 0.85297263
0.61865741 -0.023602158 0.85250121
0.62315071 -0.022608494 0.85345078
0.62559831 -0.022790162 0.8540867
0.63167048 -0.021077882 0.85483593
0.64999741 -0.024340119 0.85362375
0.65106994 -0.02259684 0.85322589
0.62908506 -0.019854296 0.85206634
0.63191062 -0.019834269 0.85457027
0.63703561 -0.018184913 0.85267234
0.64493275 -0.017762501 0.85345447
0.64601815 -0.017509982 0.85415393
0.65181279 -0.018080834 0.85106069
0.6171059 -0.041677456 0.85647148
0.6223098 -0.040954586 0.85730594
0.61737895 -0.037308417 0.85678709
0.62263572 -0.037749872 0.85778272
0.62825716 -0.037551865 0.85798997
0.63417125 -0.037662968 0.85907948
0.64103949 -0.035751961 0.85950625
0.64795446 -0.035497606 0.85858262
0.6182912 -0.032315794 0.85648131
0.62341601 -0.032570686 0.85797304
0.62912238 -0.032797448 0.85765314
0.63484228 -0.034875449 0.85881132
0.63554257 -0.032373175 0.85897493
0.64255285 -0.031568393 0.85903609
0.64873487 -0.032672472 0.85762185
0.65007317 -0.030559894 0.85725957
0.61906379 -0.02741202 0.85675329
0.62450534 -0.027838614 0.85755968
0.62659073 -0.027971977 0.85897142
0.63057768 -0.027436608 0.8579092
0.63690615 -0.027639991 0.85841906
0.64371669 -0.02728785 0.85786456
0.64757824 -0.027908713 0.85713619
0.65054518 -0.028096486 0.85583198
0.61966252 -0.023101667 0.85607475
0.62125492 -0.020610474 0.85709178
0.62580967 -0.022623802 0.85759908
0.63176829 -0.022960166 0.85771483
0.63811409 -0.023032598 0.85747737
0.64307052 -0.022642992 0.85701638
0.64546156 -0.021173408 0.856148
0.62651807 -0.019507671 0.85774505
0.63270348 -0.01909879 0.85743326
0.63913071 -0.018716697 0.85653406
0.64102447 -0.019362791 0.85767114
0.6466071 -0.019011136 0.85538566
0.6233865 -0.040485546 0.86030072
0.62346834 -0.037377626 0.86020947
0.62853414 -0.03782618 0.86122137
0.63250613 -0.036488201 0.86136395
0.63588238 -0.036588676 0.8623004
0.64208388 -0.035695463 0.8611517
0.62957889 -0.033248041 0.86086637
0.63063371 -0.032272793 0.86118859
0.63653916 -0.033117138 0.86128342
0.64314461 -0.032935154 0.86047852
0.63131875 -0.028080732 0.8604387
0.63778907 -0.028850604 0.86042434
