# .PCD v0.7 - Point Cloud Data file format
VERSION 0.7
FIELDS x y z
SIZE 4 4 4
TYPE F F F
COUNT 1 1 1
WIDTH 852
HEIGHT 1
VIEWPOINT 0 0 0 1 0 0 0
POINTS 852
DATA ascii
0.4860929 -0.12264573 0.80776167
0.4919655 -0.1207751 0.80699015
0.49663645 -0.11954682 0.80661625
0.47168243 -0.051390883 0.80853653
0.46942413 -0.04598891 0.80907416
0.47027004 -0.048862375 0.80991876
0.46849379 -0.041938215 0.80838364
0.46813637 -0.037819222 0.8090415
0.46813649 -0.032616179 0.80904132
0.46842763 -0.028035613 0.80850583
0.47184545 -0.025949894 0.80704474
0.47824416 -0.023858277 0.80743158
0.48472324 -0.021745505 0.80780292
0.48226753 -0.12273429 0.81326568
0.48831648 -0.12080038 0.81208694
0.49230558 -0.11952274 0.8122139
0.48132655 -0.08064352 0.81374604
0.47762826 -0.071084023 0.81324732
0.47608149 -0.066360652 0.81286269
0.47436106 -0.062141057 0.81319284
0.47278568 -0.057238977 0.81287527
0.47122228 -0.052699786 0.81294113
0.4693476 -0.046827462 0.81278944
0.47025785 -0.049702868 0.81350428
0.46823984 -0.042471781 0.81282997
0.46803766 -0.037539683 0.81280446
0.46839398 -0.032367673 0.81297493
0.46889183 -0.027792968 0.81286371
0.4702096 -0.025436318 0.81477553
0.47178894 -0.024378741 0.81428134
0.47812054 -0.022296844 0.81471759
0.48185754 -0.13200411 0.81630301
0.47919077 -0.12678182 0.81748271
0.47846439 -0.12327766 0.81875372
0.48290786 -0.12121 0.81794339
0.48657739 -0.12043805 0.81622642
0.48814449 -0.11952636 0.81813842
0.4918555 -0.11873967 0.81642216
0.4885951 -0.11195786 0.81965268
0.48942968 -0.10529942 0.81823939
0.53218955 -0.10571637 0.81849271
0.48741999 -0.10140727 0.81936926
0.48608574 -0.09579052 0.81707007
0.48357457 -0.091179401 0.81908947
0.48237017 -0.087138675 0.81810379
0.48076314 -0.082775295 0.81843579
0.47902972 -0.077326655 0.81776404
0.4773922 -0.072280996 0.81774187
0.47598907 -0.067750864 0.81770164
0.47426277 -0.06214577 0.81740105
0.47513807 -0.064616337 0.81765437
0.47294489 -0.057243701 0.81787038
0.47159147 -0.052299809 0.81756634
0.46980336 -0.046863683 0.81609738
0.47079653 -0.047931515 0.81840914
0.46905532 -0.042278286 0.81702965
0.47020927 -0.042887162 0.81946492
0.46902636 -0.037292857 0.81691432
0.47019368 -0.037738603 0.81949311
0.46942267 -0.033328347 0.8165341
0.47104499 -0.032317132 0.81881368
0.46979716 -0.028246854 0.81552172
0.47209969 -0.02747404 0.81800497
0.47569647 -0.025762694 0.81976718
0.48438898 -0.025733562 0.81998128
0.48765093 -0.026799902 0.81897962
0.4900848 -0.027304964 0.81713217
0.47346687 -0.024044121 0.8173703
0.47763792 -0.023304934 0.81886035
0.4824222 -0.022855336 0.81821114
0.48613843 -0.024385072 0.81774807
0.48396501 -0.14128241 0.82070482
0.48249418 -0.13801633 0.82151967
0.47935814 -0.13096085 0.82293773
0.48060387 -0.13380803 0.8224954
0.47830474 -0.12770708 0.82387739
0.47678095 -0.1232233 0.82444859
0.48161304 -0.12062294 0.82246727
0.48316717 -0.11972576 0.82434362
0.48864341 -0.11862613 0.8214612
0.49015686 -0.11944339 0.82230538
0.48782736 -0.11185466 0.82321674
0.48872203 -0.10777821 0.82261008
0.52884084 -0.10589623 0.82278967
0.48693866 -0.10259484 0.82336205
0.53355229 -0.10407856 0.82367957
0.48480809 -0.095996827 0.82267618
0.48565254 -0.098442078 0.82237262
0.48378864 -0.092707105 0.82252461
0.48219788 -0.087312765 0.82290691
0.47996777 -0.080789231 0.82073826
0.48082098 -0.082487836 0.82307011
0.47929272 -0.077417962 0.82236558
0.48028854 -0.079161994 0.82474709
0.47818145 -0.072671935 0.82269412
0.47700378 -0.067297548 0.82292885
0.47469988 -0.061385099 0.8207531
0.47592214 -0.062449567 0.82285047
0.47424144 -0.057490438 0.82156068
0.4757846 -0.058130708 0.82401752
0.47353989 -0.052402116 0.82203102
0.47525835 -0.052492689 0.82436752
0.49979699 -0.051889353 0.82356012
0.4729583 -0.04728511 0.82233649
0.47509027 -0.04732006 0.82466179
0.49729881 -0.047418546 0.82392639
0.47246808 -0.042784907 0.82239091
0.47503674 -0.042745739 0.82475561
0.49402064 -0.041585546 0.82411075
0.49582648 -0.042660393 0.82280791
0.47251961 -0.037657224 0.82230002
0.47550157 -0.037159596 0.82459593
0.48961899 -0.036088012 0.82471055
0.49272236 -0.037359189 0.82306343
0.47344619 -0.03292384 0.82154804
0.47717559 -0.032426842 0.82357645
0.48249844 -0.03127199 0.82405055
0.48768809 -0.032329701 0.8236298
0.49158078 -0.032697998 0.82142907
0.4743138 -0.028946063 0.82051194
0.47769853 -0.028018961 0.82155138
0.48219803 -0.027439762 0.82162672
0.4869667 -0.0285617 0.82105559
0.48208243 -0.14080279 0.82732189
0.4796955 -0.13573816 0.82802516
0.48135641 -0.13759895 0.8281846
0.47893032 -0.13217734 0.82901573
0.4808391 -0.1339131 0.82944089
0.47760302 -0.12948336 0.82936895
0.47701284 -0.12225632 0.82699746
0.48033133 -0.12004327 0.82693547
0.48187861 -0.1191512 0.82879376
0.48871282 -0.1170348 0.82734036
0.48743445 -0.11263599 0.8279146
0.48804209 -0.10744748 0.82754672
0.5268234 -0.10638261 0.82724732
0.48712683 -0.10239548 0.82776064
0.52866018 -0.10472701 0.82771766
0.53145832 -0.10382359 0.82783997
0.53516579 -0.10336868 0.82558513
0.48489505 -0.095531404 0.82591963
0.48588508 -0.097471036 0.82786846
0.48434421 -0.092282243 0.8270548
0.48536128 -0.092180073 0.82961082
0.48348245 -0.087515488 0.82766914
0.48238906 -0.082553871 0.82756788
0.50958192 -0.082380451 0.82991058
0.47992808 -0.076188222 0.82536769
0.48166254 -0.077366069 0.82791162
0.50733852 -0.076432355 0.82908815
0.47939777 -0.072310321 0.82582772
0.48139155 -0.072510168 0.82849979
0.50531429 -0.072178096 0.82901782
0.47910661 -0.067231603 0.82661974
0.48145902 -0.067390531 0.82905883
0.50277311 -0.066763103 0.82869428
0.47852436 -0.062205937 0.82665348
0.48158476 -0.06216355 0.82929355
0.499311 -0.062148392 0.82949972
0.50173849 -0.06272015 0.82760829
0.47825101 -0.057504967 0.8267929
0.48164788 -0.057614479 0.82918668
0.49479842 -0.055649854 0.82949191
0.49772668 -0.057679228 0.82858425
0.50043654 -0.056972623 0.8258478
0.47788057 -0.052460197 0.82663417
0.48238587 -0.05254063 0.82905406
0.4869144 -0.051527452 0.82968378
0.49257502 -0.052264381 0.82909173
0.49669656 -0.05295134 0.82722402
0.47790593 -0.047330953 0.82659149
0.48272666 -0.047471672 0.82847649
0.48760355 -0.047709309 0.82882798
0.49213138 -0.047295079 0.82757789
0.49547654 -0.04847106 0.82617033
0.47750041 -0.042777516 0.8261596
0.48223975 -0.042525809 0.82757068
0.48727971 -0.042451251 0.82751179
0.49165687 -0.042537045 0.8261115
0.47791502 -0.037878834 0.82582057
0.48251441 -0.03730638 0.82659173
0.48729512 -0.037749317 0.82616258
0.49059802 -0.038986545 0.82531685
0.47929257 -0.03436631 0.8253305
0.482465 -0.033938114 0.82554835
0.48590207 -0.034124419 0.82534325
0.48114017 -0.14078392 0.83227766
0.47973043 -0.13555445 0.8346653
0.48142135 -0.13827543 0.83426774
0.47908795 -0.13080558 0.83242065
0.47825292 -0.12746166 0.83070368
0.4770529 -0.12262424 0.83166325
0.47875923 -0.1193252 0.83298451
0.48238814 -0.11820095 0.83239102
0.48911032 -0.11623896 0.83222216
0.48840359 -0.11246301 0.83276093
0.4887 -0.10763972 0.83246112
0.49036002 -0.10570773 0.83455753
0.52666402 -0.10507634 0.83175176
0.4887543 -0.10230371 0.83218211
0.49031585 -0.10226366 0.83463001
0.52777708 -0.10378289 0.83327532
0.53266746 -0.10266919 0.83242667
0.48801199 -0.09753193 0.83232665
0.49015689 -0.098207735 0.83489066
0.51356018 -0.096332163 0.83343613
0.51700044 -0.099185988 0.83245349
0.48757866 -0.092440732 0.83273977
0.51152241 -0.09203995 0.83336079
0.48483956 -0.086857714 0.83048749
0.48719651 -0.087419689 0.83287591
0.50855696 -0.086924076 0.83366746
0.51040256 -0.089068353 0.83294779
0.48434305 -0.082417406 0.83058071
0.48722568 -0.082738452 0.83314359
0.49012324 -0.081067026 0.83494639
0.5040493 -0.080730073 0.83426952
0.50645733 -0.082616597 0.83336133
0.48403296 -0.077611774 0.83073175
0.48723629 -0.077604845 0.83312714
0.49100029 -0.077112839 0.83472484
0.49901634 -0.076179445 0.83469325
0.5023464 -0.077421807 0.83382267
0.50634569 -0.078399897 0.83137637
0.48390651 -0.072438501 0.8309449
0.48737389 -0.072506815 0.83289975
0.49271694 -0.072491817 0.83422953
0.49734658 -0.07250037 0.83396292
0.5022555 -0.072922744 0.83206308
0.48380822 -0.067414455 0.83080727
0.48742548 -0.067573398 0.83243144
0.4922812 -0.067462258 0.83321887
0.49750561 -0.067454688 0.83235621
0.50139415 -0.068734214 0.83089602
0.48405409 -0.062205631 0.83069694
0.48741332 -0.062354557 0.83173162
0.49246699 -0.06263452 0.83206922
0.49665427 -0.062553361 0.83108938
0.48427311 -0.057691369 0.83032846
0.4878726 -0.057570193 0.83096826
0.49229139 -0.05748881 0.83076608
0.49560219 -0.059084155 0.83038235
0.4871853 -0.053763915 0.83017421
0.49028492 -0.054110445 0.83028489
0.48227087 -0.13626422 0.83524352
0.47912979 -0.13244078 0.83568263
0.48157898 -0.13273723 0.8359651
0.4786222 -0.12768939 0.83654267
0.48170474 -0.12805995 0.83685303
0.47799066 -0.12264888 0.83778244
0.48076883 -0.12216216 0.8379522
0.47799331 -0.11884489 0.83823842
0.48186597 -0.11794775 0.83768076
0.48994383 -0.1152508 0.83523959
0.49031109 -0.11578366 0.83572847
0.48965892 -0.11228393 0.83570683
0.49133539 -0.11195824 0.83818603
0.48928064 -0.10823451 0.83578163
0.49140942 -0.10723253 0.83804101
0.51873624 -0.10551405 0.83830172
0.49289447 -0.10252237 0.83723986
0.49643528 -0.10177097 0.83941197
0.51462084 -0.10140991 0.83924538
0.51627928 -0.10253855 0.83814168
0.52281344 -0.10418898 0.8385188
0.52850246 -0.1026362 0.83746207
0.53148282 -0.10165326 0.83833128
0.49269375 -0.097520828 0.83697438
0.49766812 -0.09749046 0.83923614
0.50253183 -0.096672863 0.83957803
0.50772834 -0.097763099 0.83889633
0.51207697 -0.098424979 0.83748245
0.51674712 -0.099799283 0.83602536
0.48996395 -0.091861226 0.83520722
0.49250987 -0.092728108 0.83673412
0.49731177 -0.092460342 0.83838588
0.5026871 -0.092231497 0.83841676
0.5071674 -0.092898697 0.8371914
0.51008677 -0.093327701 0.83557802
0.48999041 -0.089016557 0.83516401
0.49216402 -0.087289371 0.83620381
0.49736482 -0.08755032 0.83752346
0.5020749 -0.087489776 0.83722919
0.50620943 -0.088055544 0.83589655
0.49256191 -0.082586154 0.8358236
0.4974882 -0.082766756 0.83656514
0.50212151 -0.082779765 0.83580571
0.49310249 -0.078094214 0.83532029
0.49697101 -0.077820458 0.83544374
0.50067091 -0.07971058 0.83529949
0.48234424 -0.13678339 0.8409729
0.48511219 -0.13676526 0.84100246
0.48280823 -0.13257778 0.84180272
0.47987676 -0.12603799 0.84317893
0.4822191 -0.12751147 0.8426733
0.48525226 -0.12739527 0.84293133
0.47927934 -0.12256639 0.84336257
0.48298433 -0.12249527 0.84343308
0.47905767 -0.11785197 0.84454399
0.4828372 -0.11745801 0.84356594
0.48823777 -0.11418199 0.84236002
0.49338043 -0.11183628 0.84144044
0.49700186 -0.11075474 0.84301811
0.50087219 -0.11046142 0.84457684
0.4937951 -0.10736944 0.84089458
0.49726662 -0.10746677 0.84283578
0.50240088 -0.10739219 0.84436738
0.50721282 -0.10715479 0.84440595
0.51235044 -0.10640406 0.84268731
0.51606876 -0.10594828 0.84282446
0.53351909 -0.10813018 0.84365058
0.49475983 -0.10471471 0.84042066
0.49804348 -0.10338828 0.84173989
0.50241643 -0.10247616 0.8426224
0.50748032 -0.10220174 0.84265435
0.51223999 -0.10256905 0.84128076
0.51705867 -0.104656 0.84255546
0.52219784 -0.10349633 0.8425554
0.5275178 -0.10179981 0.84304011
0.50204849 -0.099214189 0.84016931
0.4836612 -0.13597441 0.846609
0.48613507 -0.13573349 0.84684461
0.48357329 -0.13219395 0.847287
0.48743242 -0.13284917 0.84708524
0.48375851 -0.12747794 0.84822804
0.48774227 -0.12757531 0.84758419
0.48353732 -0.12266538 0.84894305
0.48722383 -0.12241919 0.84810692
0.48317939 -0.11749826 0.84952629
0.48709843 -0.11764354 0.84847254
0.53357184 -0.11610372 0.84866232
0.48340085 -0.11443632 0.84810209
0.4873074 -0.11397684 0.8478983
0.49240044 -0.11177622 0.847377
0.49639285 -0.11075485 0.84632963
0.53371656 -0.11240018 0.84643054
0.50395232 -0.10961597 0.84505165
0.51168621 -0.10517628 0.84990543
0.52887374 -0.10719547 0.84858781
0.51736271 -0.10389678 0.8476271
0.52187026 -0.10263371 0.84715587
0.52815777 -0.10265146 0.84673542
0.48771271 -0.132337 0.85259807
0.49155098 -0.13151334 0.85161388
0.49640635 -0.13063532 0.85464799
0.48804471 -0.12728727 0.85294336
0.49213952 -0.12744512 0.85170329
0.49644265 -0.12729135 0.85459173
0.48802063 -0.12246356 0.85330349
0.4922874 -0.12221421 0.85175413
0.49698728 -0.1220773 0.8546322
0.52770197 -0.12007169 0.85495853
0.53329444 -0.12031927 0.85106897
0.48789656 -0.11740344 0.85350055
0.49233207 -0.11756728 0.85272366
0.49723682 -0.11734998 0.85439348
0.52848959 -0.11719347 0.8538419
0.53380531 -0.11876176 0.85035014
0.48346347 -0.11408963 0.85012335
0.48803821 -0.11301059 0.8532728
0.49245149 -0.1126804 0.85239768
0.4976511 -0.11278182 0.85409659
0.52272648 -0.11170993 0.85444432
0.52835763 -0.11257105 0.85202134
0.53020072 -0.11289779 0.85141569
0.49722701 -0.10929172 0.85296297
0.50307411 -0.10773916 0.85381019
0.50723076 -0.10577952 0.85351789
0.51043904 -0.10554334 0.85381526
0.51709235 -0.10643616 0.85454845
0.52356827 -0.10724587 0.85282892
0.52740449 -0.10793766 0.85137117
0.51266444 -0.10429781 0.85254395
0.51833433 -0.10302973 0.85313731
0.5240078 -0.10320814 0.85098267
0.52515906 -0.10202053 0.85053933
0.49213704 -0.13116661 0.85676175
0.49714145 -0.13035932 0.85659462
0.49245068 -0.12744454 0.85668314
0.497242 -0.12710492 0.85712069
0.50228584 -0.12661317 0.85772038
0.50861198 -0.12598144 0.85856062
0.49247935 -0.12244981 0.85663676
0.49750328 -0.12271726 0.85767543
0.50266165 -0.12258118 0.85735488
0.50909108 -0.12237951 0.8587448
0.51495385 -0.12332242 0.85927653
0.51524597 -0.12117217 0.85885102
0.52202445 -0.12142245 0.85865229
0.52803516 -0.12059748 0.85548592
0.49267322 -0.11758983 0.8570835
0.49822393 -0.11758072 0.85840762
0.50310922 -0.11765276 0.85803431
0.50963187 -0.11745515 0.85794318
0.51047474 -0.11585327 0.85982817
0.5163545 -0.1172161 0.85866737
0.52274394 -0.11778125 0.85739875
0.52889311 -0.11901698 0.85527086
0.492975 -0.11245245 0.85689378
0.49847984 -0.11246727 0.85760653
0.50368285 -0.11213902 0.85721087
0.50725895 -0.11206257 0.85856324
0.51077169 -0.11227033 0.85838372
0.51697367 -0.11257155 0.85733807
0.5234099 -0.11325938 0.85573828
0.49315852 -0.10974166 0.85660744
0.49843761 -0.10876584 0.85679734
0.50280279 -0.10814966 0.85760134
0.50597847 -0.10733456 0.85875893
0.51156372 -0.10739215 0.85721445
0.51814759 -0.10782509 0.85617501
0.51294076 -0.10380083 0.85659838
0.51899683 -0.10400882 0.85540634
0.49757054 -0.1276429 0.86035854
0.50348091 -0.12622954 0.86178386
0.50900424 -0.12557662 0.86099386
0.49813613 -0.12256195 0.8601712
0.50382894 -0.12281594 0.86135525
0.50868165 -0.12252174 0.86147511
0.51103097 -0.12205004 0.86243862
0.51634157 -0.12191761 0.86100304
0.50426102 -0.11764377 0.8610186
0.50548106 -0.1172096 0.86120689
0.51094288 -0.11793392 0.86114222
0.51746213 -0.11887637 0.86062855
0.50474209 -0.11391408 0.86029869
0.50600851 -0.11293235 0.86042053
0.51141149 -0.11360835 0.86045438
0.60390884 -0.13218133 0.80790871
0.60902554 -0.13145955 0.80561656
0.61091977 -0.13042676 0.80533195
0.61289054 -0.12950002 0.80707353
0.61692941 -0.12885788 0.80727983
0.59478295 -0.072315671 0.80911583
0.59325266 -0.068343297 0.8089934
0.59128809 -0.062281925 0.80802721
0.58890915 -0.056886803 0.80903739
0.59035426 -0.058067642 0.80641299
0.58791596 -0.052028615 0.80750847
0.58738101 -0.047441661 0.80821973
0.5873239 -0.042937823 0.80829585
0.58791924 -0.037466563 0.80793142
0.59114176 -0.034680031 0.80963945
0.59572971 -0.033702806 0.80788147
0.60140324 -0.032000612 0.80795145
0.60329694 -0.14855124 0.81498587
0.60156929 -0.13872163 0.81090641
0.5991078 -0.13335621 0.81266123
0.60222721 -0.13128388 0.81321424
0.60707855 -0.13027334 0.81124437
0.60830581 -0.1293301 0.81387997
0.61028904 -0.12951438 0.81034201
0.60207254 -0.096843123 0.81445587
0.60062921 -0.092867546 0.814206
0.59918135 -0.087734766 0.81291676
0.59720039 -0.082826041 0.81301641
0.59460026 -0.076332904 0.81357551
0.59585023 -0.079065964 0.81300664
0.59346795 -0.07245978 0.8129406
0.59169054 -0.067112096 0.81284803
0.58959997 -0.060663141 0.81272179
0.59040642 -0.062934771 0.81229609
0.58873165 -0.057695895 0.81306869
0.58736265 -0.052675806 0.81268573
0.5870747 -0.04770714 0.8128733
0.58735114 -0.042638276 0.81250906
0.58790994 -0.037498914 0.81258559
0.58962637 -0.034357414 0.81374323
0.59321517 -0.033265859 0.81327134
0.59780729 -0.032283202 0.8115344
0.6027723 -0.14706205 0.81565034
0.60046124 -0.14272451 0.81650323
0.59770072 -0.13729367 0.81752646
0.59642351 -0.13307185 0.81874263
0.60128522 -0.13064422 0.81753516
0.60366559 -0.12971613 0.81970012
0.60785353 -0.12865931 0.81755435
0.60892725 -0.12189066 0.81621349
0.60842168 -0.1181746 0.81890726
0.65162957 -0.11565524 0.81950378
0.60658222 -0.11341675 0.81914008
0.60373998 -0.10546806 0.81857562
0.6050899 -0.10827945 0.8179121
0.60287702 -0.10284684 0.8182829
0.60110539 -0.097598888 0.8177613
0.59931737 -0.092649959 0.81830209
0.59775198 -0.087646827 0.81787509
0.59615302 -0.082487248 0.81761062
0.59443367 -0.07666675 0.81770831
0.5951035 -0.079068422 0.81814897
0.59313685 -0.072162561 0.81755716
0.59197342 -0.067752674 0.8178097
0.58979249 -0.061048083 0.81562746
0.59080833 -0.06291803 0.8179633
0.58929813 -0.057294257 0.81731701
0.59018236 -0.05819289 0.81929731
0.58843839 -0.052644558 0.81771404
0.58834732 -0.047249444 0.81783301
0.58885175 -0.042529985 0.81717545
0.59057516 -0.041367538 0.81930912
0.61260605 -0.042782657 0.81989515
0.58920467 -0.038016807 0.81609499
0.5917961 -0.036957163 0.81859708
0.60758901 -0.03678634 0.81891656
0.59258473 -0.033828318 0.81757808
0.59755796 -0.032335859 0.81831586
0.60244465 -0.032459319 0.81814188
0.60522795 -0.034752436 0.81877393
0.6018182 -0.15104797 0.82099062
0.59939456 -0.14603974 0.82198781
0.60071874 -0.14798647 0.821688
0.59801728 -0.14252822 0.82270032
0.59468484 -0.1355148 0.82384628
0.59648311 -0.13786976 0.8238433
0.59398043 -0.13336229 0.82474184
0.5978837 -0.13076061 0.82184261
0.59946996 -0.12974997 0.82394326
0.60731971 -0.12865864 0.82187021
0.60607201 -0.12221006 0.82284921
0.60661954 -0.11740793 0.82251066
0.60463703 -0.11075885 0.82259047
0.60542625 -0.11308278 0.82262945
0.64961642 -0.11465798 0.82477778
0.60371393 -0.10780382 0.82271725
0.60215384 -0.1027074 0.8228482
0.60064095 -0.097367138 0.8226555
0.59913808 -0.092026606 0.82272136
0.59783763 -0.087214008 0.82251614
0.59676123 -0.082399271 0.82274884
0.59484214 -0.076112695 0.82159019
0.59589678 -0.078118227 0.82305276
0.59427416 -0.07259991 0.82190144
0.59547687 -0.073125362 0.82420856
0.5935449 -0.067533493 0.8224203
0.59539604 -0.069440417 0.82499409
0.59289885 -0.06239257 0.82273746
0.59230143 -0.057385929 0.82277524
0.6151287 -0.056740731 0.82495767
0.58950907 -0.051724195 0.82016945
0.59206784 -0.052272927 0.82307541
0.61254251 -0.050214678 0.82405096
0.61540377 -0.053082898 0.82259607
0.58945876 -0.047908109 0.8202346
0.59214944 -0.047213949 0.82297146
0.59547436 -0.045350514 0.82489538
0.61125576 -0.046956863 0.82359326
0.59282225 -0.042516999 0.82186759
0.59703684 -0.041697796 0.82385021
0.60236675 -0.041296277 0.824404
0.60792816 -0.042644601 0.8236171
0.59382689 -0.038436662 0.82082403
0.59720892 -0.037397087 0.82167155
0.60200405 -0.037658535 0.82206768
0.60616803 -0.038788419 0.82171154
0.59836817 -0.034353551 0.82020026
0.60081887 -0.03446497 0.82019299
0.5997507 -0.15092468 0.82664847
0.59876049 -0.14709565 0.82822514
0.60051596 -0.14808893 0.82873601
0.59739572 -0.14267993 0.82908833
0.59471416 -0.1369559 0.82992184
0.59584218 -0.13790196 0.82782441
0.5941065 -0.13132681 0.82560515
0.59609538 -0.13226047 0.82585973
0.59906584 -0.12908995 0.82750446
0.60666513 -0.12680931 0.82719612
0.60492814 -0.12092895 0.82731599
0.60551858 -0.12282491 0.82784897
0.60607457 -0.11763144 0.82773912
0.64482725 -0.1162673 0.82819992
0.64598483 -0.11527262 0.82689077
0.60474491 -0.11130071 0.82619113
0.60553634 -0.11306982 0.82808125
0.64788121 -0.11432739 0.82871264
0.65282655 -0.1136208 0.82514846
0.60403389 -0.10734712 0.82764012
0.60280001 -0.1020321 0.82761127
0.60178542 -0.097329512 0.8276242
0.59974778 -0.091964975 0.82563674
0.60103947 -0.092777774 0.82790029
0.5992744 -0.08751028 0.82645488
0.60089087 -0.088054217 0.82894433
0.59873122 -0.08282201 0.82690912
0.600757 -0.082697056 0.82944775
0.59804523 -0.077556275 0.82695597
0.60013169 -0.077600934 0.82921517
0.62274045 -0.077661976 0.827905
0.59771246 -0.072560616 0.82717049
0.60054159 -0.072253503 0.82957155
0.61892247 -0.072501041 0.82911128
0.59721261 -0.067369968 0.82699597
0.60073423 -0.067479409 0.82947659
0.61376095 -0.065859631 0.82963026
0.61679292 -0.067472272 0.82848895
0.59707463 -0.062394131 0.82695597
0.60207111 -0.062326163 0.82940668
0.60831851 -0.061317828 0.8297112
0.61266452 -0.062290628 0.8288061
0.61616087 -0.062447611 0.82673669
0.59496284 -0.05731272 0.82554293
0.59770286 -0.057344746 0.8271845
0.60235256 -0.057650533 0.82879221
0.60706371 -0.057625007 0.82891375
0.61177766 -0.057764281 0.82758301
0.59499109 -0.054149389 0.82550728
0.59736001 -0.052301578 0.8265987
0.60261989 -0.052370783 0.82783979
0.60741538 -0.053039022 0.8276273
0.6113807 -0.052883536 0.82597607
0.59721088 -0.047394916 0.82597178
0.60206681 -0.047477141 0.82681173
0.60721147 -0.048076563 0.82612598
0.59864426 -0.043706853 0.82539225
0.6029467 -0.043785214 0.8257181
0.60645425 -0.044632845 0.82543415
0.59837443 -0.14761917 0.83426344
0.60117155 -0.14824168 0.83495128
0.59880286 -0.14166412 0.83019465
0.59432393 -0.13555571 0.83041245
0.59718204 -0.13774283 0.83087128
0.59395325 -0.13185613 0.83174354
0.59678674 -0.13264897 0.83203512
0.59715092 -0.12881643 0.83211708
0.60712171 -0.12604065 0.83266503
0.60628784 -0.12212901 0.83268124
0.60686243 -0.1169489 0.83282763
0.64464557 -0.11591878 0.83037919
0.60712284 -0.11207291 0.8326633
0.64473128 -0.11404387 0.83420521
0.64718217 -0.11365089 0.83276898
0.65222555 -0.11259314 0.83172989
0.60438466 -0.10518309 0.8300032
0.60640526 -0.1075488 0.83268201
0.63430989 -0.10901029 0.83424801
0.60442072 -0.10251057 0.83096319
0.60643977 -0.10299595 0.83349651
0.63007689 -0.10224388 0.83321601
0.6039021 -0.097763725 0.83126581
0.60626483 -0.097878128 0.83370942
0.62613642 -0.096949659 0.83450216
0.60338062 -0.092855625 0.83123773
0.60622478 -0.09279827 0.83375865
0.62327856 -0.092386089 0.83455354
0.62546432 -0.091541797 0.83265531
0.60320538 -0.087741293 0.83145338
0.60691035 -0.087770849 0.83392215
0.61022031 -0.086046316 0.83488804
0.61824244 -0.085947551 0.83455706
0.62215722 -0.08752159 0.83323574
0.60316038 -0.082661062 0.83150929
0.60719717 -0.082765371 0.83357465
0.61229068 -0.082259439 0.83438683
0.61722696 -0.082539827 0.83378321
0.62123352 -0.082268804 0.83168143
0.60270834 -0.077604845 0.83106244
0.60749048 -0.077904418 0.83301955
0.6123538 -0.077505015 0.83331853
0.6170975 -0.077385105 0.83211851
0.62046373 -0.078469157 0.8306039
0.60328668 -0.072727814 0.83104604
0.6075117 -0.07278762 0.8321951
0.61219579 -0.072865717 0.83215177
0.61602783 -0.072305888 0.83090484
0.60317969 -0.067557916 0.83048183
0.60713893 -0.067956425 0.83122128
0.61192334 -0.06784457 0.83084708
0.6042496 -0.063856959 0.83017015
0.60717934 -0.063568346 0.83034801
0.6106925 -0.06493289 0.83033299
0.59920502 -0.14536442 0.83537686
0.60114455 -0.14648736 0.83531624
0.5981673 -0.14236465 0.83585989
0.60109204 -0.1423555 0.83604324
0.59705299 -0.13771804 0.83685547
0.60035735 -0.13705996 0.83694345
0.59470445 -0.13175225 0.83795232
0.59758168 -0.13276397 0.83787471
0.59461892 -0.12859988 0.83805841
0.59770733 -0.12833808 0.83821452
0.60093021 -0.12640199 0.83723253
0.60798824 -0.12502266 0.83559495
0.60876346 -0.12245715 0.83754927
0.60848689 -0.1179672 0.83740932
0.63785726 -0.11546027 0.83705509
0.60943788 -0.11311743 0.83582872
0.61192143 -0.11277213 0.83819348
0.61596 -0.11069165 0.83986825
0.63420236 -0.11228665 0.83827609
0.6425423 -0.11394375 0.83762568
0.64749968 -0.1124851 0.83792877
0.65076852 -0.11149084 0.83819532
0.60890567 -0.10774859 0.83562094
0.61236995 -0.10813818 0.83803147
0.6170671 -0.10642752 0.83945692
0.62259781 -0.10674904 0.83952826
0.62713325 -0.1070507 0.83808535
0.63111204 -0.10899955 0.83790231
0.60875112 -0.1029281 0.83566576
0.61224616 -0.10283234 0.83757639
0.61719036 -0.10224269 0.83872378
0.6221832 -0.10264497 0.83844936
0.62638903 -0.10206331 0.83650029
0.60883445 -0.097881079 0.83556557
0.61250025 -0.097718328 0.83710068
0.6176402 -0.09736193 0.83771443
0.62221807 -0.097740814 0.83693999
0.60898769 -0.092849717 0.83538115
0.61240393 -0.09279912 0.83638072
0.61717194 -0.092207253 0.83648086
0.62138426 -0.093631081 0.83595037
0.60988897 -0.089140691 0.83528656
0.61263335 -0.087652892 0.83549947
0.6166659 -0.087616533 0.83543605
0.62001759 -0.089452773 0.8350935
0.61174333 -0.084891915 0.83504087
0.59922981 -0.14651808 0.84079123
0.60179281 -0.14650491 0.84111691
0.59882426 -0.14221445 0.84177732
0.60258001 -0.14253153 0.84194684
0.59812784 -0.13759689 0.84262592
0.60203713 -0.13747045 0.84278077
0.59821534 -0.13267677 0.8434996
0.60233134 -0.13239959 0.84340131
0.59754825 -0.12774925 0.84413278
0.60157853 -0.12691203 0.8435275
0.60331011 -0.12459907 0.84222096
0.60772204 -0.12316117 0.8427943
0.61259747 -0.12122301 0.8420741
0.61783552 -0.12095066 0.84447533
0.61270636 -0.11775947 0.84154785
0.61748016 -0.11783688 0.84392303
0.62193686 -0.11677311 0.84455681
0.62737942 -0.11704491 0.84410268
0.63337886 -0.11624116 0.84235334
0.63537264 -0.11530641 0.8446753
0.61350191 -0.11414027 0.84120333
0.61754161 -0.11276027 0.84223479
0.62230992 -0.11223497 0.84296703
0.62753415 -0.11260878 0.8426401
0.63150883 -0.11248825 0.84068847
0.63804084 -0.11424797 0.84233141
0.64230889 -0.11303691 0.84206647
0.64640105 -0.11161884 0.84298539
0.61851758 -0.10860365 0.84012192
0.62198818 -0.10887618 0.84023571
0.62685901 -0.10982443 0.84083205
0.60127318 -0.14598748 0.84661949
0.60214305 -0.14282344 0.847251
0.60588974 -0.14246082 0.84705269
0.60235101 -0.13761654 0.84805816
0.60607016 -0.13711497 0.84766591
0.60198152 -0.1326582 0.84867501
0.60591203 -0.13166004 0.84867841
0.60151905 -0.12770848 0.84922701
0.60602808 -0.12696049 0.84867918
0.60227567 -0.1239417 0.84832036
0.60670561 -0.12279374 0.84801549
0.61155462 -0.12089367 0.8479445
0.6227023 -0.11920393 0.84512097
0.64717799 -0.11728945 0.84879208
0.63268745 -0.11425113 0.84957957
0.63742369 -0.11333139 0.84735286
0.64165109 -0.11209305 0.84788102
0.64717484 -0.11255584 0.84595382
0.60462797 -0.14192103 0.8519311
0.60779142 -0.14179488 0.85194439
0.61051375 -0.14064573 0.85203105
0.60480779 -0.13773713 0.8523553
0.60773164 -0.13687839 0.85242081
0.61250699 -0.13690402 0.85352123
0.60459197 -0.13218088 0.85324657
0.60756546 -0.13268238 0.85261565
0.61208379 -0.13184839 0.85363293
0.60392332 -0.12690368 0.85250837
0.60673106 -0.12720072 0.85345775
0.6113404 -0.12757052 0.85335457
0.61563706 -0.12589476 0.85465181
0.6468848 -0.12672982 0.85380149
0.60287619 -0.12423062 0.8514533
0.60659188 -0.12253775 0.85318458
0.61078453 -0.12251565 0.85266751
0.6159144 -0.12224028 0.85433424
0.64157069 -0.12080795 0.85486609
0.64703727 -0.12259138 0.85176581
0.61297292 -0.11940623 0.85298365
0.61764032 -0.11819024 0.85362172
0.62287021 -0.11623942 0.85397404
0.62610197 -0.11562856 0.85221976
0.63516033 -0.11569317 0.85438108
0.64187044 -0.11814854 0.85347307
0.64748931 -0.11965882 0.85033995
0.62911451 -0.11464677 0.85261929
0.63213718 -0.11366019 0.85302317
0.63638657 -0.11298019 0.85365921
0.64221042 -0.11328314 0.85117257
0.60932738 -0.14092746 0.85625201
0.6129123 -0.1402483 0.85589266
0.60943818 -0.13760774 0.85643816
0.61279386 -0.13737632 0.85791045
0.61545783 -0.13750398 0.85579967
0.62055874 -0.13645576 0.858455
0.62622225 -0.13592461 0.85865247
0.6095503 -0.13216877 0.85693812
0.6105442 -0.1321674 0.85767365
0.61544323 -0.13221411 0.85752207
0.6209861 -0.13223344 0.85797441
0.62679452 -0.13257076 0.85881436
0.63304299 -0.13140923 0.85903227
0.63976431 -0.13138223 0.85867798
0.6405158 -0.13055943 0.859101
0.64612687 -0.13018103 0.85554618
0.60987979 -0.12856644 0.85655737
0.61050552 -0.12690242 0.85709089
0.61596036 -0.12763493 0.85804194
0.6216414 -0.12715028 0.85800165
0.62744445 -0.12767975 0.85812306
0.63386524 -0.12749343 0.8585968
0.63752395 -0.12673357 0.85832667
0.64103448 -0.12723091 0.85751301
0.64650011 -0.12901716 0.85514623
0.61070508 -0.12247929 0.85654658
0.61656845 -0.12269022 0.85814488
0.62225598 -0.12248757 0.85748142
0.6284157 -0.12250739 0.85808152
0.63331401 -0.12239363 0.8580088
0.63584435 -0.1224465 0.85842657
0.64150095 -0.12318206 0.85587376
0.61094439 -0.11945637 0.85627043
0.617369 -0.11831607 0.85779762
0.62316233 -0.11770308 0.85758615
0.62888527 -0.11740801 0.85694075
0.6308285 -0.11696263 0.85839808
0.6361686 -0.11763206 0.85633409
0.62811488 -0.11434054 0.85655403
0.63109136 -0.11356228 0.85699117
0.63798153 -0.11400802 0.85503364
0.6148237 -0.13721408 0.8602705
0.61620921 -0.13672818 0.86056423
0.62081355 -0.1363328 0.86158133
0.62650537 -0.13568209 0.86019707
0.61604261 -0.1327742 0.86038047
0.62131608 -0.13259616 0.86122578
0.62773424 -0.1328159 0.86186922
0.63393193 -0.13191304 0.86099195
0.63539386 -0.13095355 0.86155701
0.61658216 -0.12879653 0.86014259
0.62210745 -0.12768193 0.8610642
0.62833846 -0.12765455 0.86095256
0.63466311 -0.12852685 0.86050516
0.63580936 -0.12804335 0.86049199
0.62302279 -0.12210375 0.86035311
0.62956494 -0.12349555 0.86052948
